ncols        161
nrows        31
xllcorner    76.0354166556
yllcorner    11.4509722333
cellsize     0.000277777778
NODATA_value -9999
249.1234283447265625 244.5103607177734375 241.9173583984375 241.4043426513671875 242.161407470703125 242.7378997802734375 237.9441986083984375 235.5034942626953125 230.2861175537109375 217.850372314453125 211.4927215576171875 208.8705291748046875 203.492034912109375 204.139556884765625 221.5266876220703125 233.57806396484375 240.425262451171875 241.8767547607421875 241.033966064453125 242.3182830810546875 246.1055450439453125 247.8455352783203125 251.033782958984375 259.3123779296875 268.18310546875 278.15814208984375 286.762908935546875 300.878143310546875 313.757659912109375 325.306915283203125 341.0550537109375 355.02532958984375 364.30816650390625 375.553192138671875 389.6053466796875 402.369781494140625 404.799407958984375 403.001434326171875 401.933319091796875 404.293548583984375 407.146240234375 410.00006103515625 417.005767822265625 419.992218017578125 425.9727783203125 435.530548095703125 448.563751220703125 467.501983642578125 483.683380126953125 498.440521240234375 512.59991455078125 525.77777099609375 538.89227294921875 552.2845458984375 565.8851318359375 578.6497802734375 580.0128173828125 578.19354248046875 573.26947021484375 568.91168212890625 574.6712646484375 588.480224609375 598.96807861328125 602.1575927734375 589.61676025390625 573.8428955078125 562.61090087890625 557.8209228515625 551.446044921875 538.79107666015625 527.86016845703125 516.20184326171875 498.43829345703125 484.225189208984375 471.633758544921875 465.12933349609375 468.79180908203125 473.247894287109375 475.500762939453125 475.513336181640625 478.477691650390625 483.292938232421875 488.874267578125 494.745635986328125 499.343231201171875 502.748016357421875 506.754791259765625 512.48553466796875 513.9783935546875 510.387481689453125 510.328277587890625 520.26568603515625 526.81939697265625 538.7135009765625 555.29510498046875 570.005615234375 581.89239501953125 586.84466552734375 578.4559326171875 564.38177490234375 560.84234619140625 560.8612060546875 555.74853515625 555.44256591796875 548.640869140625 545.69915771484375 555.7213134765625 564.94207763671875 566.6724853515625 570.6461181640625 574.73333740234375 575.29534912109375 586.0506591796875 603.0660400390625 620.460693359375 633.265625 642.4072265625 651.49462890625 660.34527587890625 666.14520263671875 670.33087158203125 668.3458251953125 664.5181884765625 663.6285400390625 667.447509765625 671.75152587890625 673.86505126953125 672.72369384765625 664.72735595703125 663.50958251953125 675.51324462890625 701.20556640625 721.12548828125 736.385986328125 752.28814697265625 765.1556396484375 776.7164306640625 789.9598388671875 804.04998779296875 824.2149658203125 850.661376953125 865.34027099609375 876.49346923828125 887.67120361328125 897.79168701171875 908.1474609375 920.45013427734375 931.5272216796875 936.13177490234375 944.39208984375 957.38677978515625 978.76373291015625 996.142578125 1012.17364501953125 1015.34588623046875 1019.9754638671875 1027.8114013671875 1032.1856689453125 1027.78955078125 1018.19927978515625 994.2342529296875
237.42181396484375 233.6679840087890625 233.4438934326171875 234.1926116943359375 235.6721038818359375 234.720794677734375 229.5583648681640625 226.47125244140625 218.5783233642578125 213.334747314453125 208.6657257080078125 202.1848297119140625 198.5458221435546875 207.8461456298828125 222.517913818359375 234.105621337890625 239.6134033203125 239.438507080078125 238.7954864501953125 237.56549072265625 240.506744384765625 238.92999267578125 240.60760498046875 248.2891845703125 259.716827392578125 272.90704345703125 284.621978759765625 297.18560791015625 309.002044677734375 322.02655029296875 335.753265380859375 348.229736328125 358.571380615234375 371.837310791015625 387.48968505859375 402.805206298828125 411.00592041015625 415.537933349609375 414.099365234375 416.754852294921875 419.827789306640625 423.58575439453125 428.214111328125 432.855926513671875 432.937408447265625 436.50128173828125 445.245849609375 457.452667236328125 470.232330322265625 482.990875244140625 491.389739990234375 501.848419189453125 520.8358154296875 539.355224609375 554.884765625 567.29559326171875 570.9925537109375 566.6494140625 557.4212646484375 560.7059326171875 575.25604248046875 588.2589111328125 597.901611328125 595.5960693359375 582.03515625 568.54864501953125 552.02899169921875 538.797607421875 528.85699462890625 516.81268310546875 508.353363037109375 502.124267578125 488.3087158203125 475.53289794921875 465.702117919921875 460.3768310546875 462.14111328125 465.98468017578125 466.9110107421875 467.57476806640625 470.8072509765625 477.58013916015625 485.691497802734375 491.964935302734375 495.8162841796875 496.660247802734375 498.2850341796875 501.96240234375 504.41571044921875 503.272705078125 503.576934814453125 511.054290771484375 518.9266357421875 533.51092529296875 546.5069580078125 553.93133544921875 561.80230712890625 571.55047607421875 571.67926025390625 557.89361572265625 549.97308349609375 549.8634033203125 548.55950927734375 544.10052490234375 537.41436767578125 537.1689453125 548.68963623046875 552.8616943359375 552.9381103515625 557.4368896484375 559.976806640625 569.86102294921875 586.2076416015625 599.488037109375 612.713134765625 626.83026123046875 639.09503173828125 648.314453125 655.97576904296875 660.93011474609375 659.5718994140625 653.6561279296875 651.9732666015625 655.58258056640625 654.145751953125 655.73480224609375 657.6190185546875 656.70037841796875 652.529541015625 654.56964111328125 664.35003662109375 681.7261962890625 701.69989013671875 711.955078125 726.319091796875 739.6063232421875 751.23089599609375 768.51092529296875 785.43231201171875 804.1416015625 825.87384033203125 849.80499267578125 859.38580322265625 864.41748046875 874.8431396484375 885.54046630859375 893.3958740234375 899.4915771484375 909.3909912109375 920.51300048828125 937.83660888671875 968.16754150390625 985.74700927734375 1001.5245361328125 1004.18145751953125 1010.43182373046875 1020.22979736328125 1025.23388671875 1021.68817138671875 1006.0277099609375 991.25640869140625
226.6555328369140625 227.314483642578125 229.49554443359375 230.7295074462890625 231.10418701171875 227.2119903564453125 223.609893798828125 219.8526458740234375 211.4777069091796875 207.9117279052734375 203.9127197265625 199.5205078125 202.2231903076171875 216.180450439453125 225.9763641357421875 232.4098663330078125 233.7484130859375 235.276611328125 235.98175048828125 235.6446075439453125 236.46588134765625 234.4208831787109375 235.7490234375 241.81414794921875 251.8734130859375 266.22454833984375 281.597381591796875 297.87152099609375 310.1513671875 323.965362548828125 340.46380615234375 352.8582763671875 362.695556640625 369.9166259765625 382.83203125 401.754638671875 415.9036865234375 424.272674560546875 429.21868896484375 431.87066650390625 436.366912841796875 440.7125244140625 441.49658203125 444.341278076171875 445.10345458984375 442.012786865234375 445.60888671875 455.2855224609375 465.241943359375 470.308013916015625 475.34674072265625 486.859039306640625 506.648956298828125 530.0166015625 545.92718505859375 556.5086669921875 558.880126953125 556.36883544921875 549.23370361328125 552.33251953125 566.478515625 581.54925537109375 589.5479736328125 584.38751220703125 571.9395751953125 561.70172119140625 547.80096435546875 531.52545166015625 517.373779296875 504.285919189453125 492.70513916015625 485.767822265625 475.6051025390625 465.655303955078125 457.142333984375 452.113311767578125 456.43646240234375 463.6654052734375 463.95098876953125 463.844451904296875 467.879852294921875 475.539520263671875 483.7548828125 488.535675048828125 491.671722412109375 493.064849853515625 495.727081298828125 495.964324951171875 494.97174072265625 495.901885986328125 501.459747314453125 506.829559326171875 514.38946533203125 526.65264892578125 535.86767578125 542.36932373046875 549.56134033203125 557.28472900390625 562.211181640625 550.337158203125 537.543701171875 536.54010009765625 535.6768798828125 530.58154296875 527.0316162109375 534.687744140625 542.65753173828125 540.46002197265625 538.562744140625 539.64642333984375 548.3922119140625 564.67340087890625 584.954345703125 600.33831787109375 614.57012939453125 629.27294921875 637.9112548828125 644.0810546875 649.9832763671875 653.8731689453125 649.21868896484375 638.30560302734375 638.65179443359375 641.8770751953125 641.98553466796875 641.0323486328125 640.69134521484375 641.08929443359375 642.43804931640625 650.33172607421875 661.16302490234375 676.20074462890625 684.6343994140625 694.26690673828125 707.4412841796875 724.86297607421875 738.5145263671875 749.682373046875 774.07373046875 795.75689697265625 819.53216552734375 840.05609130859375 851.758056640625 855.8323974609375 861.10589599609375 867.66827392578125 874.90423583984375 880.82122802734375 900.73260498046875 921.530517578125 943.67431640625 969.44268798828125 983.10198974609375 993.6219482421875 992.6065673828125 993.6837158203125 1004.845947265625 1001.75213623046875 999.4609375 989.59576416015625 980.91754150390625
219.0785980224609375 220.9174346923828125 223.029205322265625 224.1387939453125 224.3719635009765625 222.5310516357421875 221.16943359375 216.7872161865234375 206.79949951171875 201.902740478515625 198.90802001953125 196.0811309814453125 201.8480987548828125 213.910614013671875 223.441864013671875 228.926544189453125 229.218994140625 229.952606201171875 231.5162506103515625 231.5761566162109375 230.6599273681640625 232.325592041015625 237.142364501953125 242.6542816162109375 253.2381134033203125 267.2982177734375 283.352142333984375 305.347625732421875 321.947540283203125 336.177581787109375 348.433624267578125 361.87017822265625 370.193572998046875 378.83135986328125 392.627288818359375 406.072967529296875 418.7000732421875 430.876983642578125 440.35992431640625 442.6629638671875 445.964019775390625 451.57275390625 455.59124755859375 454.846038818359375 453.732147216796875 450.96392822265625 452.1175537109375 458.99774169921875 468.173431396484375 471.65081787109375 475.356475830078125 485.03778076171875 497.62725830078125 518.861572265625 537.473876953125 546.58837890625 548.1129150390625 543.258544921875 536.77264404296875 540.57147216796875 552.56109619140625 567.41668701171875 579.06939697265625 576.0638427734375 563.745361328125 552.10205078125 538.50030517578125 525.65264892578125 512.52325439453125 502.1641845703125 491.26580810546875 476.73846435546875 463.916351318359375 454.44482421875 447.624359130859375 445.89898681640625 454.39422607421875 463.68060302734375 464.4432373046875 461.48297119140625 463.515411376953125 472.03582763671875 477.764984130859375 480.538848876953125 485.44866943359375 488.146881103515625 489.49725341796875 488.398773193359375 489.31256103515625 495.1192626953125 502.991790771484375 507.027374267578125 513.52008056640625 520.40447998046875 529.10400390625 536.1966552734375 542.15875244140625 548.16748046875 550.00787353515625 543.5699462890625 526.8172607421875 523.3292236328125 523.6116943359375 522.7498779296875 524.1453857421875 532.7694091796875 536.01776123046875 530.19195556640625 527.38079833984375 531.25274658203125 548.338134765625 570.712158203125 590.87176513671875 606.21685791015625 619.0218505859375 628.95269775390625 632.17156982421875 633.58172607421875 637.89630126953125 638.2474365234375 630.171142578125 622.34576416015625 624.80792236328125 626.6148681640625 626.23968505859375 623.2449951171875 625.058837890625 630.70245361328125 636.96026611328125 646.4327392578125 656.15032958984375 662.32611083984375 668.8436279296875 678.89312744140625 696.04931640625 723.4581298828125 736.71661376953125 750.90087890625 773.7938232421875 798.21343994140625 822.95538330078125 826.54541015625 833.62957763671875 840.10406494140625 845.1324462890625 852.84649658203125 862.0928955078125 880.06488037109375 902.23748779296875 930.1793212890625 953.07061767578125 971.236572265625 976.564208984375 982.8072509765625 988.49859619140625 984.1097412109375 984.21240234375 978.68646240234375 976.94989013671875 972.78460693359375 962.19970703125
211.1334991455078125 212.8986053466796875 214.3388519287109375 216.02545166015625 218.6694793701171875 218.86328125 218.807830810546875 213.9132843017578125 205.31451416015625 199.21282958984375 195.3709564208984375 194.6903228759765625 205.2513275146484375 215.7525787353515625 225.169219970703125 226.528594970703125 224.11322021484375 227.890472412109375 231.95660400390625 230.0540313720703125 227.025970458984375 229.603668212890625 237.40545654296875 244.5206451416015625 253.4903564453125 266.02117919921875 285.840972900390625 308.908782958984375 327.8192138671875 339.65966796875 348.32708740234375 362.021728515625 376.51171875 386.244232177734375 396.747314453125 407.176300048828125 420.18310546875 435.705657958984375 449.7183837890625 455.85260009765625 456.5125732421875 458.26031494140625 459.35247802734375 456.624298095703125 451.86627197265625 446.153900146484375 450.736328125 460.75469970703125 470.878662109375 475.6748046875 481.17767333984375 487.81683349609375 497.248687744140625 509.3216552734375 525.016845703125 533.4306640625 531.62945556640625 526.41864013671875 524.96826171875 532.2440185546875 543.98431396484375 559.39105224609375 570.17376708984375 570.689208984375 560.38360595703125 547.8829345703125 534.393798828125 529.68798828125 522.43011474609375 512.37933349609375 502.245269775390625 488.71099853515625 474.87225341796875 449.51177978515625 437.56280517578125 442.92401123046875 451.152008056640625 457.63922119140625 457.7117919921875 455.42059326171875 456.92901611328125 464.445404052734375 470.92474365234375 475.015045166015625 478.99041748046875 481.803985595703125 482.8831787109375 481.993316650390625 485.691650390625 495.29583740234375 500.387176513671875 506.2147216796875 510.673095703125 514.058349609375 520.50457763671875 529.63006591796875 536.7747802734375 540.84869384765625 540.3853759765625 534.52593994140625 520.673828125 513.2972412109375 513.32073974609375 515.61334228515625 519.8314208984375 525.686767578125 523.65020751953125 518.077392578125 521.44036865234375 534.585205078125 554.95556640625 572.40887451171875 583.7734375 596.4342041015625 602.66278076171875 611.28875732421875 612.58026123046875 617.105224609375 615.09234619140625 615.28631591796875 612.244873046875 612.19647216796875 616.31439208984375 615.746337890625 614.3504638671875 615.72186279296875 625.75042724609375 632.83453369140625 636.4267578125 642.14599609375 648.714111328125 654.3131103515625 662.57843017578125 681.1314697265625 696.746826171875 717.13519287109375 733.1900634765625 749.841796875 772.80963134765625 794.08966064453125 807.19317626953125 810.712890625 820.01800537109375 822.66912841796875 834.01654052734375 849.3741455078125 864.8641357421875 886.69720458984375 908.74853515625 936.6451416015625 952.620849609375 960.0760498046875 964.7664794921875 974.96563720703125 984.58880615234375 986.5074462890625 974.40484619140625 968.20294189453125 963.42669677734375 958.20147705078125 946.51739501953125
201.893951416015625 203.5806121826171875 205.877716064453125 207.9480438232421875 211.583984375 214.5294952392578125 215.2910308837890625 208.058990478515625 201.340606689453125 194.9194488525390625 188.040252685546875 191.031005859375 200.8250885009765625 214.2716217041015625 223.397064208984375 224.566192626953125 222.36004638671875 224.701934814453125 228.8684844970703125 227.5935211181640625 223.2646942138671875 227.693023681640625 239.7071075439453125 248.2262115478515625 255.955841064453125 269.22760009765625 290.299591064453125 310.38665771484375 319.81756591796875 335.139251708984375 349.388397216796875 364.251434326171875 378.1715087890625 388.455841064453125 398.965728759765625 409.903961181640625 420.775054931640625 433.013519287109375 447.2110595703125 457.632476806640625 462.77178955078125 464.62078857421875 460.422607421875 453.84967041015625 447.45977783203125 443.824615478515625 443.960479736328125 451.81427001953125 466.395050048828125 477.02166748046875 481.0947265625 486.459014892578125 495.10015869140625 505.9481201171875 517.15191650390625 522.24371337890625 516.8663330078125 511.77056884765625 518.1708984375 528.67913818359375 537.836181640625 552.53802490234375 562.800048828125 564.415771484375 556.658447265625 547.6971435546875 543.78729248046875 539.772705078125 529.16705322265625 516.5574951171875 501.48870849609375 488.53973388671875 474.3253173828125 451.047637939453125 437.287322998046875 434.6336669921875 441.80914306640625 444.875152587890625 444.35443115234375 447.270751953125 453.34808349609375 460.761688232421875 465.048065185546875 468.03192138671875 468.952117919921875 472.79400634765625 474.397186279296875 475.087188720703125 477.756072998046875 482.775115966796875 488.60009765625 494.78118896484375 501.544708251953125 508.720001220703125 515.2718505859375 522.59033203125 530.25262451171875 535.0255126953125 535.69183349609375 531.0938720703125 519.57305908203125 509.327789306640625 505.77154541015625 506.892486572265625 516.1103515625 519.40283203125 512.01739501953125 511.926666259765625 524.037353515625 541.22607421875 557.02899169921875 567.18853759765625 574.7904052734375 581.5911865234375 584.82354736328125 588.7210693359375 591.444091796875 596.62225341796875 596.91925048828125 597.03350830078125 599.4901123046875 602.46051025390625 605.11126708984375 608.567138671875 610.90380859375 619.55902099609375 632.16009521484375 637.79010009765625 642.90045166015625 641.95086669921875 647.1820068359375 654.87005615234375 670.5523681640625 689.63214111328125 700.678466796875 707.43414306640625 718.7479248046875 737.03948974609375 762.5809326171875 785.46954345703125 795.7406005859375 802.34368896484375 815.8873291015625 827.73040771484375 839.9588623046875 855.30755615234375 876.643310546875 895.41912841796875 918.52301025390625 936.628662109375 942.74951171875 946.8133544921875 953.63861083984375 969.8319091796875 979.38189697265625 979.88751220703125 967.3504638671875 952.15643310546875 942.552001953125 934.76092529296875 925.2701416015625
191.4945068359375 191.8067474365234375 191.54278564453125 196.4615478515625 199.9591217041015625 201.9865570068359375 200.940032958984375 197.9923553466796875 198.5371551513671875 195.4999237060546875 191.98541259765625 193.8278045654296875 199.71575927734375 209.7857513427734375 219.778289794921875 222.195892333984375 220.35308837890625 220.860931396484375 227.427581787109375 224.819793701171875 220.5570068359375 225.9036407470703125 235.42041015625 243.2465057373046875 252.8896636962890625 268.38946533203125 287.291717529296875 305.26959228515625 318.610748291015625 332.104278564453125 348.33331298828125 364.78448486328125 374.8443603515625 385.881439208984375 399.993682861328125 411.865203857421875 422.81488037109375 431.111358642578125 441.27099609375 452.948577880859375 459.063995361328125 457.14324951171875 452.659393310546875 450.351776123046875 447.850860595703125 443.5272216796875 441.171112060546875 442.4278564453125 450.806884765625 463.378753662109375 474.1236572265625 485.14898681640625 495.911865234375 507.669708251953125 513.98089599609375 514.14129638671875 507.33782958984375 503.4976806640625 512.19598388671875 522.10162353515625 532.71875 545.11053466796875 556.19171142578125 558.45599365234375 556.6646728515625 552.332275390625 544.97381591796875 533.76910400390625 522.0950927734375 509.533782958984375 494.975189208984375 480.821502685546875 466.260498046875 447.0335693359375 430.858489990234375 429.639190673828125 434.380859375 436.806793212890625 437.958740234375 442.126190185546875 448.526702880859375 453.24139404296875 458.28826904296875 458.735198974609375 458.596160888671875 462.31591796875 463.164398193359375 464.795867919921875 466.289215087890625 470.06036376953125 475.3602294921875 482.204345703125 491.2969970703125 501.559783935546875 510.9739990234375 518.3189697265625 524.1578369140625 529.3153076171875 535.41278076171875 534.2711181640625 524.0419921875 507.777801513671875 500.005828857421875 503.204742431640625 508.659271240234375 504.877410888671875 504.325897216796875 513.10528564453125 525.84466552734375 539.95220947265625 552.609375 560.93463134765625 563.74981689453125 561.830810546875 564.6522216796875 570.0989990234375 577.0018310546875 582.0777587890625 583.493896484375 583.97808837890625 587.087158203125 592.87994384765625 598.80859375 604.73431396484375 610.445068359375 625.69500732421875 635.7200927734375 643.81451416015625 655.7010498046875 665.56817626953125 673.96533203125 679.5794677734375 688.62139892578125 705.6124267578125 716.3485107421875 723.83050537109375 735.1083984375 753.734130859375 767.9056396484375 777.2230224609375 787.5655517578125 797.3153076171875 812.099365234375 832.5584716796875 849.5655517578125 865.81219482421875 890.96014404296875 905.49298095703125 918.28253173828125 924.1248779296875 925.42578125 933.59405517578125 946.270751953125 964.071044921875 978.22137451171875 983.2760009765625 970.49609375 952.34625244140625 939.0872802734375 927.8446044921875 916.19476318359375
181.3388214111328125 183.428192138671875 184.752197265625 184.88421630859375 186.7540130615234375 187.5652008056640625 187.8554229736328125 190.903839111328125 191.9010772705078125 189.3501434326171875 191.348388671875 200.0386810302734375 208.672698974609375 214.7672882080078125 221.1215057373046875 224.410125732421875 222.4704132080078125 222.522796630859375 224.6450042724609375 223.19268798828125 217.33709716796875 217.4971160888671875 227.8676300048828125 237.2308807373046875 245.4885101318359375 257.042449951171875 273.94049072265625 295.05181884765625 310.2159423828125 326.317626953125 344.093719482421875 361.213104248046875 373.234588623046875 385.668792724609375 398.2535400390625 409.68170166015625 423.089630126953125 434.36968994140625 444.258209228515625 450.278839111328125 452.86688232421875 451.75048828125 448.36602783203125 445.9898681640625 442.807952880859375 441.92767333984375 439.23614501953125 443.121490478515625 450.257171630859375 457.6976318359375 468.107452392578125 478.97406005859375 490.783843994140625 502.529754638671875 508.58038330078125 508.761566162109375 503.511627197265625 503.367706298828125 509.797088623046875 518.52752685546875 528.01214599609375 537.72088623046875 546.3585205078125 553.05902099609375 555.39459228515625 550.66180419921875 538.37420654296875 524.0775146484375 509.603729248046875 492.3079833984375 476.13525390625 460.911285400390625 448.399017333984375 436.3583984375 423.7720947265625 423.600341796875 427.74493408203125 429.336212158203125 430.57135009765625 436.195831298828125 440.3555908203125 446.489959716796875 451.310546875 451.945526123046875 449.147705078125 450.301910400390625 451.43096923828125 451.901519775390625 452.374053955078125 453.2574462890625 458.445556640625 468.48468017578125 480.084228515625 491.9801025390625 505.15472412109375 514.20916748046875 522.60992431640625 531.04974365234375 539.1058349609375 540.73260498046875 532.1739501953125 508.895233154296875 496.013458251953125 495.00531005859375 494.984161376953125 492.828399658203125 503.35504150390625 519.04327392578125 532.74334716796875 542.12274169921875 549.09063720703125 551.2880859375 545.8206787109375 545.52294921875 553.206298828125 556.78955078125 562.06878662109375 565.30859375 571.79217529296875 577.143798828125 581.36859130859375 589.7841796875 599.9815673828125 611.809326171875 623.90478515625 632.76507568359375 646.96533203125 664.40460205078125 679.24072265625 688.2537841796875 696.0665283203125 701.14923095703125 713.5009765625 726.54522705078125 736.17864990234375 742.94952392578125 758.37969970703125 772.9267578125 786.43072509765625 792.83392333984375 801.8663330078125 810.72607421875 819.669677734375 841.75262451171875 860.2584228515625 877.54095458984375 892.03704833984375 900.35546875 904.02447509765625 908.454833984375 915.89715576171875 925.51763916015625 941.6507568359375 964.44927978515625 983.6689453125 986.586669921875 977.35308837890625 961.93804931640625 951.50250244140625 939.86737060546875 921.1402587890625
178.00714111328125 176.2185211181640625 173.920440673828125 171.7036590576171875 172.114593505859375 175.126983642578125 178.782989501953125 181.0997314453125 181.723602294921875 186.94207763671875 194.4016876220703125 203.58697509765625 213.0312652587890625 222.97076416015625 227.945770263671875 225.9734039306640625 221.04345703125 217.164398193359375 216.0757293701171875 220.0176849365234375 218.75299072265625 218.3768157958984375 224.9544830322265625 233.7016143798828125 245.702392578125 255.9521026611328125 268.350860595703125 285.8082275390625 303.298736572265625 321.348419189453125 341.742706298828125 358.262115478515625 369.589385986328125 380.272369384765625 392.219573974609375 405.1260986328125 417.518707275390625 429.87799072265625 441.70074462890625 448.388824462890625 450.849700927734375 448.159423828125 444.06292724609375 437.798065185546875 436.931732177734375 438.60626220703125 441.30975341796875 447.5965576171875 456.027740478515625 465.391693115234375 471.94110107421875 481.84454345703125 492.55120849609375 501.276336669921875 504.967926025390625 502.1583251953125 495.9429931640625 498.12115478515625 505.201629638671875 514.41131591796875 521.15594482421875 527.45013427734375 537.4473876953125 546.21502685546875 549.83349609375 542.70355224609375 529.07879638671875 509.973480224609375 495.382049560546875 476.89898681640625 463.151702880859375 450.8443603515625 438.049285888671875 427.341644287109375 419.02239990234375 418.796173095703125 423.5411376953125 422.5318603515625 425.8013916015625 430.0162353515625 434.8876953125 442.40643310546875 447.358123779296875 442.536712646484375 434.5302734375 434.166900634765625 439.477752685546875 438.878662109375 437.625091552734375 438.498260498046875 441.90325927734375 450.035919189453125 465.077362060546875 481.737396240234375 495.799530029296875 506.863067626953125 517.2369384765625 525.7071533203125 534.1529541015625 540.14337158203125 535.3621826171875 509.817230224609375 493.396270751953125 484.559600830078125 483.623779296875 492.522369384765625 509.40057373046875 523.5472412109375 537.3035888671875 546.16552734375 543.26336669921875 535.96588134765625 534.10101318359375 542.38824462890625 551.53961181640625 555.324462890625 556.25628662109375 560.3804931640625 570.020751953125 578.4326171875 586.269775390625 595.70050048828125 609.29351806640625 626.25946044921875 640.17669677734375 646.71783447265625 653.790771484375 670.09271240234375 691.42425537109375 704.03955078125 708.33843994140625 722.86822509765625 740.82989501953125 754.249755859375 764.90771484375 770.63720703125 775.880615234375 790.71258544921875 811.6907958984375 824.56884765625 831.02301025390625 830.57757568359375 834.07427978515625 844.33306884765625 861.43646240234375 871.77960205078125 876.71209716796875 877.44732666015625 881.67431640625 890.25665283203125 899.985107421875 917.07952880859375 936.14373779296875 961.30230712890625 988.0478515625 998.005615234375 993.61492919921875 978.4283447265625 966.0753173828125 945.6552734375 924.07891845703125
171.673919677734375 175.3579864501953125 175.014373779296875 179.799407958984375 185.9332122802734375 187.655975341796875 186.1388092041015625 183.800018310546875 189.4595489501953125 196.028533935546875 202.2428131103515625 212.699798583984375 223.6500396728515625 231.421142578125 231.8234710693359375 229.76104736328125 227.161895751953125 221.14459228515625 212.743438720703125 213.2138214111328125 218.1093902587890625 224.9952850341796875 232.943450927734375 244.4799041748046875 253.7449188232421875 261.940093994140625 273.35125732421875 285.448516845703125 302.168304443359375 321.427154541015625 341.194488525390625 358.79345703125 370.73297119140625 379.860809326171875 392.62518310546875 402.6597900390625 410.23236083984375 420.26837158203125 433.524627685546875 441.473297119140625 444.471343994140625 441.603759765625 436.728546142578125 432.88543701171875 432.6072998046875 437.225372314453125 443.6746826171875 450.4034423828125 459.71759033203125 467.982635498046875 475.54547119140625 485.153045654296875 494.883026123046875 499.62994384765625 500.6517333984375 496.63616943359375 490.3768310546875 492.6717529296875 502.441192626953125 510.498748779296875 517.30352783203125 523.96435546875 533.1446533203125 538.29766845703125 539.54034423828125 529.65899658203125 509.934600830078125 490.4046630859375 474.9044189453125 463.101959228515625 450.858154296875 441.416229248046875 429.87579345703125 420.686279296875 415.387908935546875 415.810943603515625 417.562530517578125 418.931243896484375 423.169158935546875 426.709564208984375 431.691619873046875 438.854461669921875 442.2735595703125 440.17633056640625 436.6275634765625 432.901824951171875 431.77685546875 429.725067138671875 427.873077392578125 426.7294921875 430.307952880859375 438.06689453125 452.133544921875 469.54827880859375 480.669219970703125 488.61798095703125 496.7982177734375 507.855133056640625 519.4368896484375 526.1165771484375 524.0958251953125 506.986236572265625 489.48193359375 475.37640380859375 475.512237548828125 492.379241943359375 512.68572998046875 525.37969970703125 534.1656494140625 538.408935546875 533.6307373046875 532.93310546875 539.55694580078125 549.64666748046875 558.30096435546875 560.13165283203125 561.20697021484375 573.05157470703125 583.72344970703125 593.19732666015625 603.2015380859375 608.96917724609375 620.37420654296875 635.42230224609375 658.305908203125 665.61669921875 672.1571044921875 679.80865478515625 693.33502197265625 709.93951416015625 731.17291259765625 743.9381103515625 764.98626708984375 780.94085693359375 789.49749755859375 797.7890625 809.05194091796875 824.3148193359375 837.08624267578125 845.11834716796875 841.34442138671875 832.62896728515625 834.68426513671875 841.45440673828125 850.466064453125 854.775390625 856.119384765625 857.91021728515625 867.114990234375 877.209228515625 887.9154052734375 903.3226318359375 931.13677978515625 962.69537353515625 989.34454345703125 997.1005859375 995.1156005859375 979.75238037109375 960.09588623046875 942.518310546875 924.06640625
190.689208984375 195.2449951171875 197.621551513671875 202.6651611328125 205.87322998046875 209.321502685546875 211.18267822265625 209.7022247314453125 208.9434661865234375 211.7716217041015625 217.3615264892578125 227.2590789794921875 237.3010101318359375 234.2224884033203125 229.8512420654296875 227.2527313232421875 223.844970703125 219.5139617919921875 212.934967041015625 211.9624481201171875 220.221160888671875 229.5766143798828125 238.8245849609375 249.9319915771484375 260.108154296875 270.20831298828125 283.472381591796875 299.041107177734375 312.48931884765625 327.681884765625 345.975189208984375 361.94342041015625 374.134246826171875 385.737518310546875 396.046844482421875 405.216644287109375 411.281158447265625 415.854034423828125 424.468902587890625 431.528594970703125 436.366119384765625 437.05206298828125 435.316558837890625 432.376129150390625 431.96112060546875 436.7626953125 443.6683349609375 449.950653076171875 456.62799072265625 464.316925048828125 473.7525634765625 484.972015380859375 491.8050537109375 494.99786376953125 496.306304931640625 494.953399658203125 491.026611328125 489.04876708984375 498.300537109375 507.130645751953125 513.6846923828125 519.58026123046875 528.32421875 532.663818359375 531.04327392578125 519.31341552734375 496.380096435546875 484.02313232421875 467.985015869140625 451.17919921875 434.71514892578125 429.52520751953125 422.66058349609375 411.282623291015625 408.48907470703125 411.8089599609375 415.77423095703125 417.26385498046875 419.201507568359375 421.274566650390625 425.853546142578125 432.3150634765625 437.598114013671875 436.654296875 433.040008544921875 427.44525146484375 424.779144287109375 423.738555908203125 423.185882568359375 424.4808349609375 424.699859619140625 430.32904052734375 443.125518798828125 454.48333740234375 462.100738525390625 467.978240966796875 476.694671630859375 485.742828369140625 496.06170654296875 498.821685791015625 495.96630859375 491.076904296875 484.96319580078125 472.682861328125 473.356048583984375 489.9539794921875 505.44586181640625 513.38641357421875 512.9638671875 515.78265380859375 523.11328125 528.34783935546875 538.08209228515625 549.005615234375 555.57415771484375 558.58648681640625 565.5362548828125 578.394287109375 592.80078125 604.238037109375 618.3255615234375 628.91607666015625 638.42169189453125 649.56494140625 667.052978515625 684.74273681640625 696.733154296875 702.14910888671875 712.20684814453125 727.79852294921875 745.46893310546875 761.84857177734375 779.9276123046875 798.5009765625 810.72955322265625 821.93695068359375 833.8824462890625 847.97998046875 857.52734375 855.69915771484375 839.5791015625 827.537353515625 823.22216796875 829.8375244140625 840.504638671875 849.355712890625 855.2105712890625 860.3486328125 869.1253662109375 882.1708984375 895.937744140625 911.6370849609375 931.9837646484375 963.638427734375 981.34716796875 986.33837890625 985.3753662109375 969.980224609375 951.9788818359375 938.61895751953125 923.73052978515625
199.38525390625 203.127227783203125 205.9525146484375 207.768829345703125 208.0953826904296875 209.897430419921875 218.044097900390625 224.6886444091796875 227.2917938232421875 229.8876495361328125 234.5173492431640625 241.770294189453125 245.1922454833984375 239.020843505859375 231.9595184326171875 224.6964874267578125 218.3086700439453125 209.742889404296875 203.868560791015625 202.61920166015625 214.42449951171875 229.0273590087890625 238.338104248046875 246.59674072265625 259.085540771484375 273.371795654296875 289.358917236328125 304.71710205078125 322.589447021484375 343.696197509765625 365.8941650390625 374.55987548828125 379.237518310546875 383.4193115234375 393.3148193359375 404.251373291015625 411.81268310546875 416.08673095703125 420.219818115234375 426.5836181640625 431.60791015625 432.955902099609375 432.078704833984375 429.58123779296875 430.0523681640625 437.2725830078125 444.201202392578125 449.394622802734375 455.294342041015625 465.789459228515625 478.04034423828125 487.080718994140625 489.73828125 491.26251220703125 492.63336181640625 491.45379638671875 487.904571533203125 481.782928466796875 487.0894775390625 498.394744873046875 507.683837890625 514.9091796875 524.36871337890625 529.5880126953125 525.271240234375 506.858001708984375 483.6502685546875 473.470062255859375 464.04058837890625 450.812957763671875 434.68621826171875 422.732086181640625 412.278106689453125 404.10650634765625 405.253692626953125 410.11474609375 412.0966796875 411.614593505859375 412.80670166015625 414.852508544921875 422.465301513671875 429.10870361328125 433.831451416015625 434.99041748046875 431.76031494140625 426.67523193359375 422.094940185546875 416.240631103515625 416.040771484375 417.150177001953125 416.52435302734375 420.048553466796875 429.91033935546875 436.690643310546875 443.16497802734375 451.082275390625 459.665802001953125 469.485321044921875 475.167388916015625 474.682891845703125 474.304107666015625 476.674285888671875 474.98431396484375 463.523590087890625 461.401397705078125 473.547821044921875 487.620330810546875 490.51556396484375 492.0384521484375 498.73529052734375 514.91754150390625 527.71844482421875 536.86016845703125 546.1705322265625 552.3553466796875 561.2286376953125 574.42706298828125 587.27557373046875 599.108642578125 608.533447265625 621.77294921875 637.4476318359375 650.4278564453125 659.650390625 676.40887451171875 700.25537109375 718.34820556640625 730.98876953125 740.967529296875 750.80108642578125 763.9010009765625 778.02935791015625 795.7059326171875 818.78753662109375 827.93377685546875 836.0823974609375 842.52850341796875 851.603759765625 853.2598876953125 846.14410400390625 828.82525634765625 820.54547119140625 819.60284423828125 824.1102294921875 832.6505126953125 842.0338134765625 854.1787109375 864.824951171875 878.58807373046875 899.76861572265625 916.69146728515625 929.89654541015625 946.94378662109375 963.031982421875 974.2767333984375 981.0556640625 978.76593017578125 970.32000732421875 955.042236328125 934.8526611328125 918.60546875
197.619720458984375 201.949920654296875 203.852081298828125 207.5058135986328125 208.431976318359375 208.0333404541015625 216.03558349609375 226.0059967041015625 231.5396728515625 231.20477294921875 236.861846923828125 242.347625732421875 241.5288543701171875 239.438446044921875 230.4510498046875 222.5777587890625 215.961334228515625 207.0142669677734375 200.1058502197265625 200.3019561767578125 210.665496826171875 226.7425537109375 237.55682373046875 249.04510498046875 261.25946044921875 274.73297119140625 290.08966064453125 303.459503173828125 325.833099365234375 354.506988525390625 372.50579833984375 380.0264892578125 385.21990966796875 389.34405517578125 394.859130859375 401.04833984375 408.050384521484375 413.436767578125 417.62066650390625 423.358642578125 428.24371337890625 429.49041748046875 428.376953125 425.89788818359375 427.047393798828125 434.139923095703125 444.416656494140625 452.04205322265625 461.174407958984375 471.13140869140625 479.470703125 482.068328857421875 482.880615234375 484.411468505859375 485.143035888671875 483.25689697265625 480.329071044921875 475.267913818359375 479.16455078125 492.946563720703125 503.996368408203125 512.2327880859375 521.6302490234375 526.622314453125 516.92987060546875 498.555450439453125 481.42889404296875 462.46759033203125 453.64990234375 443.423675537109375 430.671234130859375 416.103302001953125 405.91796875 400.30975341796875 400.35345458984375 402.86041259765625 405.5787353515625 404.339599609375 406.961883544921875 416.261566162109375 423.41937255859375 427.840484619140625 430.33538818359375 431.067535400390625 429.55731201171875 425.0828857421875 416.980377197265625 411.007354736328125 408.769378662109375 408.115142822265625 411.316436767578125 413.44952392578125 418.313140869140625 423.766571044921875 428.218902587890625 437.921661376953125 446.3089599609375 455.4527587890625 459.538848876953125 459.7813720703125 459.7861328125 463.26043701171875 463.978057861328125 454.330474853515625 454.89239501953125 467.3682861328125 473.5272216796875 474.157745361328125 479.8448486328125 488.9315185546875 510.999298095703125 525.32318115234375 532.51947021484375 539.0860595703125 552.683349609375 566.74615478515625 578.4830322265625 587.52215576171875 597.1053466796875 608.7171630859375 622.41619873046875 639.635498046875 653.34173583984375 668.56646728515625 686.28021240234375 706.54541015625 719.5670166015625 739.15582275390625 755.923095703125 768.62078857421875 786.94781494140625 803.95751953125 817.3284912109375 828.49786376953125 831.9482421875 835.52581787109375 838.54034423828125 836.9827880859375 834.24072265625 826.65728759765625 815.9869384765625 819.59552001953125 825.15625 826.48565673828125 833.2034912109375 844.49725341796875 856.7838134765625 869.11865234375 885.98614501953125 904.522705078125 923.2694091796875 937.9490966796875 951.66302490234375 963.19659423828125 969.25115966796875 970.490234375 965.6951904296875 959.12335205078125 949.6341552734375 928.82415771484375 912.2987060546875
200.75 200.3374481201171875 200.8255462646484375 203.71734619140625 210.9442291259765625 215.1255035400390625 219.135162353515625 223.970306396484375 228.190887451171875 231.1037445068359375 231.8083038330078125 232.6866912841796875 233.2660675048828125 229.530975341796875 223.7894439697265625 218.8322906494140625 212.6680908203125 204.96246337890625 196.2802734375 200.748565673828125 212.126861572265625 225.7903289794921875 236.3305511474609375 247.0654144287109375 260.2381591796875 273.856719970703125 289.495849609375 306.607208251953125 326.39215087890625 345.525299072265625 362.33551025390625 376.5743408203125 390.22998046875 400.877960205078125 406.054473876953125 403.4837646484375 403.272491455078125 406.04315185546875 411.141082763671875 417.26019287109375 422.145904541015625 426.146270751953125 425.766571044921875 424.7757568359375 424.45751953125 429.51251220703125 440.058380126953125 449.561981201171875 461.038360595703125 469.059356689453125 472.94256591796875 473.182830810546875 473.440032958984375 477.811737060546875 479.8936767578125 475.834136962890625 471.746063232421875 471.93212890625 483.27734375 497.785552978515625 505.977325439453125 512.88494873046875 518.9093017578125 522.49981689453125 514.79522705078125 497.9913330078125 478.30511474609375 462.655029296875 446.169921875 434.435882568359375 422.357177734375 408.05364990234375 397.201416015625 394.9788818359375 396.71759033203125 397.758056640625 399.937896728515625 398.784912109375 404.070953369140625 414.449615478515625 421.300689697265625 423.870391845703125 425.355194091796875 426.585174560546875 424.325653076171875 418.934844970703125 414.503570556640625 408.3472900390625 404.07647705078125 402.08563232421875 402.964691162109375 405.13922119140625 411.04083251953125 415.802154541015625 420.1964111328125 430.85284423828125 439.05291748046875 443.4794921875 444.518707275390625 445.28485107421875 447.9169921875 449.53497314453125 449.370758056640625 446.103240966796875 454.447967529296875 462.4512939453125 464.650360107421875 467.718719482421875 475.310455322265625 490.0469970703125 507.402008056640625 527.060546875 535.333740234375 544.34100341796875 558.04705810546875 571.25567626953125 583.126953125 590.824951171875 600.8707275390625 613.57440185546875 626.25750732421875 645.5211181640625 662.8599853515625 675.08880615234375 692.740234375 707.53460693359375 719.95391845703125 738.165283203125 750.5360107421875 768.69189453125 795.44342041015625 806.08087158203125 809.56549072265625 814.3028564453125 821.0350341796875 824.6907958984375 825.63555908203125 826.14007568359375 820.425537109375 809.71380615234375 806.8116455078125 814.7567138671875 819.48724365234375 823.90283203125 831.55682373046875 842.69140625 859.6407470703125 871.8370361328125 889.86016845703125 911.3077392578125 927.01312255859375 940.79095458984375 952.32171630859375 957.71826171875 957.8797607421875 954.2552490234375 952.239013671875 952.444091796875 947.18902587890625 926.29351806640625 903.4058837890625
197.4112548828125 198.2603607177734375 201.343841552734375 206.1275177001953125 210.2742156982421875 213.5350189208984375 217.676422119140625 221.41229248046875 226.2307891845703125 224.8067474365234375 223.0093231201171875 223.6809539794921875 226.605010986328125 224.2269439697265625 218.1403045654296875 211.9383697509765625 204.379302978515625 199.2740478515625 194.2379608154296875 200.890625 215.340423583984375 223.6417999267578125 231.106842041015625 241.517364501953125 254.171539306640625 269.32098388671875 285.794097900390625 301.88623046875 325.055206298828125 339.734161376953125 354.000396728515625 371.479827880859375 389.7198486328125 406.723541259765625 417.494720458984375 416.87640380859375 408.78277587890625 403.21893310546875 403.7928466796875 407.73358154296875 412.26165771484375 417.694976806640625 420.0418701171875 420.280303955078125 419.51666259765625 425.9837646484375 434.826141357421875 442.756317138671875 454.56854248046875 461.094512939453125 463.21307373046875 461.734283447265625 463.869354248046875 470.72503662109375 473.547271728515625 472.9896240234375 469.979949951171875 475.991302490234375 487.790374755859375 497.997833251953125 504.367950439453125 509.388214111328125 515.37432861328125 515.58251953125 505.575836181640625 490.73553466796875 473.70892333984375 459.977874755859375 444.073699951171875 431.635986328125 419.7939453125 406.092437744140625 392.7203369140625 386.870880126953125 390.38299560546875 393.468994140625 393.9326171875 398.292694091796875 406.218353271484375 415.128448486328125 419.460601806640625 420.064483642578125 418.289398193359375 417.400238037109375 414.704254150390625 413.169219970703125 411.173492431640625 405.25982666015625 402.19073486328125 404.66461181640625 405.0606689453125 406.35418701171875 411.02880859375 415.8890380859375 421.294525146484375 429.65576171875 432.933746337890625 433.139617919921875 433.46856689453125 436.22479248046875 438.789154052734375 438.09173583984375 437.00897216796875 440.0069580078125 448.273223876953125 456.248565673828125 465.181976318359375 474.554595947265625 485.845947265625 498.30340576171875 506.1158447265625 518.05108642578125 531.647705078125 547.32568359375 561.640625 579.2476806640625 593.51336669921875 602.35308837890625 608.56640625 617.1214599609375 633.936767578125 655.939453125 669.9552001953125 681.80035400390625 691.917724609375 703.10076904296875 718.86871337890625 736.3602294921875 750.986328125 767.014404296875 779.6014404296875 787.729248046875 790.07769775390625 795.06549072265625 803.3070068359375 807.1689453125 806.5833740234375 806.62518310546875 803.35223388671875 801.6910400390625 801.98541259765625 807.08349609375 817.09600830078125 832.14202880859375 839.899658203125 848.22174072265625 862.73248291015625 875.90875244140625 889.5965576171875 904.85467529296875 927.6781005859375 945.5189208984375 952.6351318359375 949.2421875 945.53369140625 941.34320068359375 941.0450439453125 943.92913818359375 942.052001953125 921.57452392578125 896.18927001953125
196.113433837890625 199.2883758544921875 203.3683624267578125 207.238983154296875 210.284942626953125 212.5083770751953125 214.6466827392578125 217.18505859375 218.5334625244140625 219.83935546875 219.108978271484375 217.7978057861328125 219.5751800537109375 217.8943328857421875 212.6414947509765625 207.208343505859375 200.406768798828125 192.3778533935546875 195.1026763916015625 203.1918487548828125 211.942291259765625 218.9445953369140625 228.931884765625 242.311798095703125 256.935455322265625 270.349945068359375 287.274871826171875 304.42913818359375 325.026214599609375 340.8331298828125 355.105133056640625 368.682159423828125 382.2403564453125 398.9842529296875 411.268524169921875 417.73992919921875 415.029815673828125 407.34454345703125 405.191680908203125 413.25592041015625 418.725799560546875 419.416748046875 415.5146484375 414.458770751953125 417.10919189453125 422.75439453125 429.392822265625 435.11492919921875 442.95709228515625 450.917694091796875 453.181976318359375 452.579986572265625 453.6583251953125 463.1571044921875 469.03759765625 469.01812744140625 469.3309326171875 479.029571533203125 486.73956298828125 491.402862548828125 493.030487060546875 496.930938720703125 499.936248779296875 498.923004150390625 491.72760009765625 480.41729736328125 467.99749755859375 458.18701171875 445.461151123046875 430.6009521484375 418.5657958984375 406.3155517578125 392.161590576171875 379.33575439453125 379.47186279296875 382.4566650390625 388.217315673828125 391.2060546875 398.01812744140625 409.6441650390625 414.83404541015625 414.814361572265625 411.917633056640625 409.774200439453125 411.16741943359375 409.050811767578125 408.360809326171875 404.113067626953125 404.756378173828125 408.642730712890625 412.40643310546875 412.959014892578125 415.07391357421875 417.284912109375 423.380584716796875 425.688690185546875 423.166046142578125 422.86669921875 424.258331298828125 428.20599365234375 430.386688232421875 431.71185302734375 434.818359375 441.7977294921875 451.5550537109375 463.787078857421875 474.04888916015625 482.226226806640625 490.978668212890625 499.1192626953125 506.632659912109375 515.52783203125 525.45361328125 542.70587158203125 568.6160888671875 587.0738525390625 602.51580810546875 613.54986572265625 622.84259033203125 630.86163330078125 642.35443115234375 658.8365478515625 671.11846923828125 683.9432373046875 694.20794677734375 708.8123779296875 723.18682861328125 738.79461669921875 754.29412841796875 764.13043212890625 767.9349365234375 767.3472900390625 771.466552734375 776.8546142578125 783.58538818359375 785.53155517578125 785.09405517578125 783.576904296875 782.3416748046875 786.90216064453125 798.33319091796875 809.46600341796875 821.9813232421875 834.70208740234375 842.162353515625 852.80584716796875 864.51068115234375 875.5140380859375 885.06982421875 899.6759033203125 924.833740234375 945.2320556640625 951.20123291015625 944.32293701171875 935.672119140625 930.837890625 931.12860107421875 934.55682373046875 930.80767822265625 913.5003662109375 887.62139892578125
193.364990234375 196.7876434326171875 201.45257568359375 205.27301025390625 207.8277587890625 211.397613525390625 216.0787811279296875 218.4260406494140625 217.037689208984375 217.772552490234375 213.954437255859375 210.067962646484375 210.78338623046875 209.878814697265625 207.538116455078125 204.1721954345703125 194.3740234375 186.103485107421875 192.4400787353515625 200.5030517578125 207.4170379638671875 215.2920379638671875 231.43505859375 248.5708465576171875 261.271331787109375 273.184417724609375 285.17572021484375 301.698699951171875 316.49139404296875 335.76470947265625 349.600311279296875 362.108306884765625 374.5394287109375 390.90997314453125 403.953521728515625 413.539031982421875 417.262603759765625 416.118316650390625 415.06634521484375 419.13897705078125 423.543670654296875 422.800994873046875 417.33453369140625 414.831207275390625 415.3458251953125 422.3717041015625 429.6656494140625 432.308990478515625 433.889892578125 438.915740966796875 442.37603759765625 442.0989990234375 446.57623291015625 454.779296875 459.7791748046875 460.64990234375 468.218658447265625 478.10333251953125 483.45001220703125 482.628143310546875 481.08428955078125 477.50274658203125 477.106048583984375 479.016143798828125 477.157501220703125 470.6956787109375 461.966064453125 451.6812744140625 441.965118408203125 426.509552001953125 411.960113525390625 400.76397705078125 386.037139892578125 375.387176513671875 374.713897705078125 377.93963623046875 384.0628662109375 387.1226806640625 394.67108154296875 403.800323486328125 409.862396240234375 410.510162353515625 408.078094482421875 403.19586181640625 401.198089599609375 400.88800048828125 400.809295654296875 400.76611328125 402.113739013671875 406.513916015625 410.534332275390625 410.99774169921875 412.679718017578125 415.38275146484375 415.740234375 411.30169677734375 408.305511474609375 409.834075927734375 414.87286376953125 424.213470458984375 430.061431884765625 431.71527099609375 438.12432861328125 453.558349609375 465.671600341796875 471.75286865234375 477.093231201171875 484.683135986328125 489.59490966796875 494.586578369140625 503.90362548828125 512.62420654296875 523.13726806640625 535.54437255859375 548.6732177734375 572.3299560546875 596.4490966796875 615.85675048828125 632.087646484375 644.93487548828125 653.23455810546875 662.65228271484375 674.88409423828125 685.99700927734375 700.94451904296875 717.03564453125 729.19061279296875 737.98345947265625 742.23028564453125 745.16455078125 748.10552978515625 747.15386962890625 750.93560791015625 755.5250244140625 760.91363525390625 761.91845703125 763.552001953125 765.68682861328125 768.90106201171875 777.2913818359375 796.01751708984375 812.6004638671875 825.623046875 839.89703369140625 845.0369873046875 851.55987548828125 866.11285400390625 879.7000732421875 891.7005615234375 907.20819091796875 924.874755859375 935.018310546875 937.088134765625 932.2559814453125 922.86309814453125 917.5177001953125 918.00909423828125 916.29803466796875 912.3177490234375 901.37579345703125 875.13104248046875
190.394287109375 192.7657623291015625 195.398895263671875 197.635406494140625 200.3798370361328125 206.1492919921875 211.6574249267578125 215.801666259765625 214.806915283203125 213.253570556640625 209.8327484130859375 209.315521240234375 209.7753143310546875 207.4833984375 205.7158203125 199.43267822265625 187.4032745361328125 183.3611602783203125 191.1491546630859375 200.499969482421875 207.270172119140625 217.2008056640625 230.2917633056640625 246.3339996337890625 258.83892822265625 271.07000732421875 284.537109375 295.953216552734375 309.05291748046875 323.14190673828125 338.989959716796875 355.493255615234375 367.494232177734375 377.792633056640625 385.772491455078125 394.504638671875 408.235687255859375 419.27239990234375 421.964080810546875 422.05963134765625 423.65887451171875 423.693939208984375 422.1505126953125 418.183502197265625 416.24981689453125 423.021728515625 433.720367431640625 441.664886474609375 442.417449951171875 442.4169921875 444.040618896484375 448.179962158203125 452.41424560546875 456.714141845703125 461.389862060546875 464.380523681640625 468.34710693359375 474.557525634765625 476.14300537109375 473.435302734375 466.810821533203125 456.186798095703125 451.41558837890625 455.35400390625 460.38653564453125 462.0133056640625 457.354827880859375 446.468414306640625 434.618438720703125 420.046112060546875 406.114227294921875 397.505950927734375 381.695953369140625 370.37109375 373.097137451171875 377.039886474609375 378.571014404296875 381.248443603515625 388.72747802734375 398.402496337890625 404.900604248046875 404.93719482421875 400.277984619140625 397.346832275390625 397.2730712890625 398.3221435546875 398.049713134765625 398.14923095703125 397.354278564453125 400.1636962890625 403.829986572265625 404.4034423828125 406.411529541015625 403.685394287109375 399.9786376953125 401.922119140625 408.923431396484375 419.75445556640625 428.136871337890625 436.74609375 443.2972412109375 447.3990478515625 452.81304931640625 463.615142822265625 471.836639404296875 479.67694091796875 486.60162353515625 490.001068115234375 490.28350830078125 492.339019775390625 499.55731201171875 508.578704833984375 517.777587890625 527.111328125 543.09442138671875 568.1092529296875 595.96307373046875 614.08013916015625 629.6695556640625 653.98468017578125 662.109619140625 671.64801025390625 684.31561279296875 695.554443359375 709.84857177734375 719.83447265625 725.12420654296875 727.147705078125 726.729248046875 727.8062744140625 729.34405517578125 726.8560791015625 728.0731201171875 731.38079833984375 732.41796875 733.21258544921875 740.1375732421875 750.151123046875 764.0040283203125 780.7288818359375 796.28167724609375 814.6507568359375 831.9022216796875 842.8470458984375 850.21759033203125 854.5908203125 865.624755859375 880.12603759765625 896.65911865234375 910.8770751953125 915.69415283203125 913.3345947265625 910.96929931640625 911.03936767578125 908.0494384765625 904.850830078125 904.68951416015625 897.62762451171875 892.1475830078125 886.82843017578125 862.8466796875
187.809844970703125 188.1676025390625 189.3381500244140625 191.0245208740234375 194.439727783203125 199.95703125 203.4521484375 204.39105224609375 202.476470947265625 204.3930511474609375 207.1787567138671875 206.4049835205078125 205.177642822265625 203.2938690185546875 198.815185546875 191.3876800537109375 181.8735198974609375 183.992767333984375 193.706146240234375 199.8074798583984375 206.183197021484375 217.1444549560546875 227.9665374755859375 241.524627685546875 253.5433349609375 267.4891357421875 279.201385498046875 290.493865966796875 298.93731689453125 310.424835205078125 327.88726806640625 339.6885986328125 348.190093994140625 353.70196533203125 361.96124267578125 372.173675537109375 394.94488525390625 415.9150390625 422.423187255859375 423.761932373046875 424.4774169921875 425.639068603515625 426.367523193359375 424.456146240234375 422.57342529296875 424.792388916015625 432.123931884765625 441.155029296875 446.272674560546875 448.54010009765625 453.976409912109375 460.2464599609375 463.91851806640625 466.518402099609375 468.79119873046875 469.728302001953125 466.155487060546875 466.27398681640625 464.63189697265625 459.779327392578125 451.793548583984375 436.695526123046875 434.13568115234375 437.73101806640625 444.412628173828125 449.82672119140625 449.99737548828125 441.2535400390625 425.35015869140625 408.5125732421875 397.72149658203125 389.047332763671875 376.9471435546875 364.500640869140625 368.17926025390625 372.909423828125 373.19000244140625 375.4697265625 380.263702392578125 393.148712158203125 397.794036865234375 397.916290283203125 393.4971923828125 389.113494873046875 391.418914794921875 395.052001953125 396.739105224609375 397.38623046875 396.025421142578125 396.758087158203125 398.438446044921875 400.814605712890625 398.278961181640625 393.36273193359375 399.965667724609375 409.711029052734375 419.114166259765625 428.43731689453125 437.75164794921875 448.749969482421875 455.68670654296875 460.207855224609375 466.127105712890625 473.19000244140625 478.214996337890625 481.441925048828125 485.313201904296875 487.19549560546875 487.43389892578125 491.04742431640625 500.01239013671875 510.969482421875 522.11993408203125 539.62591552734375 562.39581298828125 584.1488037109375 595.027587890625 605.49530029296875 619.74407958984375 638.48773193359375 656.81011962890625 672.469482421875 689.343505859375 705.985595703125 715.65289306640625 720.34716796875 720.5887451171875 716.454833984375 712.61883544921875 712.39154052734375 712.84332275390625 713.310302734375 715.49713134765625 718.4150390625 720.80810546875 727.728759765625 737.36871337890625 752.56610107421875 767.4327392578125 782.83367919921875 794.9813232421875 812.35626220703125 832.53826904296875 846.41876220703125 856.2774658203125 863.68182373046875 872.07269287109375 883.344970703125 891.8814697265625 893.962646484375 891.07696533203125 891.86065673828125 894.05462646484375 893.30914306640625 891.64654541015625 890.47589111328125 889.1453857421875 875.55743408203125 869.93621826171875 865.4298095703125 852.54632568359375
183.91607666015625 185.17376708984375 185.41015625 184.0937957763671875 186.2310638427734375 190.4449005126953125 192.8757781982421875 193.8564605712890625 196.9686279296875 202.384918212890625 204.7414398193359375 203.18048095703125 203.419189453125 201.696685791015625 196.66326904296875 190.5203857421875 182.3770294189453125 183.96600341796875 190.830047607421875 196.545989990234375 206.60443115234375 221.2200775146484375 234.4451141357421875 244.89971923828125 255.0349273681640625 265.4609375 275.463623046875 281.553436279296875 290.560821533203125 302.287933349609375 312.8634033203125 320.88018798828125 329.583465576171875 338.14837646484375 343.9312744140625 352.5865478515625 384.4761962890625 401.121734619140625 411.249237060546875 418.686065673828125 426.1527099609375 431.0826416015625 433.8834228515625 433.531951904296875 432.20123291015625 431.813812255859375 431.920989990234375 436.15966796875 443.479461669921875 451.58270263671875 458.017181396484375 465.93145751953125 474.3797607421875 479.363433837890625 480.145172119140625 474.227935791015625 465.418212890625 458.8612060546875 452.0557861328125 447.406341552734375 436.828765869140625 428.77947998046875 424.29815673828125 426.642425537109375 432.830108642578125 437.28912353515625 438.024871826171875 432.12603759765625 417.985565185546875 400.58624267578125 387.68499755859375 377.47674560546875 366.40081787109375 352.644134521484375 357.809814453125 365.175506591796875 367.53070068359375 373.220184326171875 379.002655029296875 390.930206298828125 392.072906494140625 390.98931884765625 388.972381591796875 384.863525390625 386.238983154296875 389.955902099609375 391.866363525390625 390.662109375 391.170196533203125 393.28955078125 393.455169677734375 392.267181396484375 391.2589111328125 396.7510986328125 409.75433349609375 416.81292724609375 426.08221435546875 434.63299560546875 442.852081298828125 450.232452392578125 458.491302490234375 469.0679931640625 479.843505859375 488.079254150390625 494.731201171875 495.73016357421875 492.78533935546875 490.111785888671875 492.217620849609375 497.9896240234375 503.58099365234375 510.971893310546875 524.18939208984375 547.4149169921875 574.8006591796875 593.65869140625 609.67962646484375 618.57086181640625 621.6922607421875 639.14117431640625 662.237548828125 683.036376953125 697.60992431640625 704.32183837890625 708.22760009765625 707.6986083984375 705.9468994140625 701.51275634765625 696.051513671875 694.78851318359375 697.5072021484375 702.25494384765625 707.21661376953125 714.11151123046875 719.42822265625 727.678955078125 744.7845458984375 764.22393798828125 778.20452880859375 788.81048583984375 799.61846923828125 816.99383544921875 832.80902099609375 849.781494140625 862.51239013671875 874.5615234375 884.07513427734375 893.6341552734375 891.4718017578125 879.6795654296875 877.2293701171875 878.616455078125 877.73162841796875 871.562744140625 867.97381591796875 863.37689208984375 858.846923828125 844.00238037109375 841.28155517578125 843.39093017578125 846.69134521484375
176.5416717529296875 178.64898681640625 180.064178466796875 179.8456268310546875 180.016754150390625 177.634063720703125 176.75848388671875 183.075653076171875 194.45709228515625 201.4261932373046875 199.648162841796875 199.0645751953125 199.9735107421875 198.6397552490234375 193.9955596923828125 188.3124237060546875 179.38690185546875 181.5367279052734375 185.966156005859375 195.6308746337890625 213.3670654296875 225.7352142333984375 236.6334381103515625 247.9327545166015625 259.62408447265625 265.906951904296875 268.134368896484375 272.03668212890625 282.16864013671875 291.86322021484375 301.989013671875 310.9906005859375 320.604827880859375 330.23956298828125 335.44769287109375 346.00323486328125 367.9102783203125 384.775634765625 396.71087646484375 409.46240234375 423.058380126953125 435.854705810546875 443.27630615234375 444.89825439453125 443.7176513671875 441.74993896484375 438.370758056640625 432.426605224609375 436.8260498046875 448.0203857421875 457.956573486328125 469.3011474609375 479.437774658203125 485.563629150390625 486.2529296875 474.968292236328125 464.614959716796875 454.300201416015625 443.530181884765625 433.134979248046875 424.181884765625 416.000701904296875 412.528717041015625 414.86163330078125 420.90155029296875 427.762237548828125 427.8785400390625 424.4906005859375 413.36981201171875 395.564239501953125 380.16839599609375 369.142974853515625 354.82373046875 349.1981201171875 353.688140869140625 358.581329345703125 361.824188232421875 368.646270751953125 376.9658203125 382.704833984375 385.79571533203125 385.22283935546875 382.76177978515625 379.345428466796875 380.823455810546875 384.01422119140625 385.5880126953125 386.29541015625 389.446502685546875 390.008270263671875 388.220245361328125 385.633148193359375 390.2012939453125 398.900146484375 409.068511962890625 416.901092529296875 426.160369873046875 431.8101806640625 438.253814697265625 446.432220458984375 454.374267578125 464.378021240234375 477.17578125 487.628143310546875 500.221893310546875 505.30303955078125 505.7657470703125 505.270477294921875 507.108489990234375 510.959564208984375 517.4713134765625 520.182861328125 526.14654541015625 550.16278076171875 577.99237060546875 594.299560546875 609.3563232421875 625.77838134765625 633.7718505859375 653.05987548828125 671.3763427734375 684.15643310546875 691.6864013671875 696.004150390625 699.1640625 701.0206298828125 695.6544189453125 684.2587890625 676.73779296875 680.78619384765625 691.61090087890625 698.22552490234375 706.2340087890625 716.94256591796875 726.5411376953125 738.842529296875 754.72589111328125 770.22808837890625 782.90509033203125 796.56878662109375 808.06451416015625 822.6131591796875 833.1790771484375 846.44598388671875 862.695556640625 874.47967529296875 883.458984375 885.53741455078125 874.89007568359375 865.60400390625 862.1834716796875 863.15704345703125 853.786865234375 844.04083251953125 835.72265625 828.21478271484375 822.1163330078125 816.8033447265625 814.78424072265625 820.680419921875 831.12078857421875
172.9873199462890625 175.587066650390625 177.57257080078125 177.250762939453125 174.80560302734375 172.8985595703125 173.141082763671875 177.449615478515625 187.5663604736328125 196.04119873046875 199.3535614013671875 200.63043212890625 199.3476715087890625 198.00823974609375 192.4524078369140625 187.0369720458984375 181.9439849853515625 183.095611572265625 192.3408203125 202.658599853515625 212.9330596923828125 223.650115966796875 231.563385009765625 245.65045166015625 256.269775390625 261.32781982421875 264.28515625 269.52386474609375 277.86126708984375 286.9366455078125 299.541595458984375 313.8277587890625 322.26629638671875 325.252471923828125 332.7869873046875 344.440673828125 361.26025390625 374.16851806640625 386.138153076171875 402.75128173828125 417.288299560546875 435.602569580078125 448.30462646484375 453.731170654296875 454.928924560546875 452.706634521484375 443.381072998046875 438.722412109375 446.36627197265625 456.27154541015625 464.695465087890625 473.560272216796875 481.89678955078125 481.87396240234375 477.22509765625 470.8499755859375 459.3665771484375 448.094573974609375 435.9912109375 421.338897705078125 411.334625244140625 402.98297119140625 396.056640625 397.683990478515625 405.798583984375 412.57452392578125 418.2066650390625 419.183441162109375 412.618927001953125 395.722412109375 379.18536376953125 364.62066650390625 352.026947021484375 346.719818115234375 347.773590087890625 351.433319091796875 356.69769287109375 364.98126220703125 372.339447021484375 375.697784423828125 376.657989501953125 374.91278076171875 371.203369140625 371.303436279296875 376.59259033203125 379.0802001953125 378.9854736328125 381.340087890625 382.801666259765625 381.48516845703125 380.048675537109375 384.287109375 390.351806640625 397.112701416015625 403.677520751953125 411.399566650390625 421.582061767578125 427.945953369140625 432.0218505859375 437.779296875 443.641845703125 452.480438232421875 464.55499267578125 478.846221923828125 489.308929443359375 500.95263671875 508.7344970703125 512.477294921875 520.20269775390625 525.9775390625 531.60064697265625 538.3385009765625 537.35430908203125 544.831787109375 565.79339599609375 583.75274658203125 605.41046142578125 622.57940673828125 633.82012939453125 654.87109375 668.730712890625 675.57861328125 679.4287109375 683.40057373046875 684.837890625 682.20782470703125 673.9676513671875 669.78607177734375 671.63720703125 676.2506103515625 686.244140625 700.21405029296875 710.91876220703125 723.6104736328125 737.31231689453125 749.16961669921875 767.4066162109375 783.1080322265625 795.8564453125 806.49566650390625 815.29119873046875 822.30181884765625 835.6231689453125 847.14251708984375 859.890869140625 872.7215576171875 879.720947265625 869.93365478515625 858.3599853515625 848.586181640625 843.8162841796875 837.8765869140625 827.13665771484375 815.7587890625 803.97515869140625 794.2015380859375 794.4754638671875 794.60595703125 797.6044921875 807.36456298828125 816.0654296875
175.81170654296875 174.5794525146484375 175.9998931884765625 175.50872802734375 174.6307830810546875 174.697265625 171.7535552978515625 173.3567352294921875 180.4406280517578125 190.01611328125 196.9601898193359375 200.7665557861328125 200.268218994140625 198.5561981201171875 190.096099853515625 183.936798095703125 180.9742889404296875 185.45123291015625 196.0159759521484375 205.01580810546875 213.6485443115234375 223.2938995361328125 227.54443359375 236.148101806640625 244.15728759765625 249.373382568359375 257.526763916015625 268.8377685546875 280.460906982421875 289.068359375 299.3170166015625 310.5296630859375 320.864013671875 326.842193603515625 334.937835693359375 348.037445068359375 364.930755615234375 378.121734619140625 388.625152587890625 400.560516357421875 412.39404296875 425.454315185546875 441.6004638671875 455.8062744140625 463.401763916015625 460.214080810546875 453.23785400390625 451.017578125 459.207977294921875 468.71771240234375 476.569122314453125 480.75286865234375 480.248199462890625 472.204345703125 465.223876953125 458.542266845703125 450.978118896484375 440.99859619140625 428.5440673828125 415.565032958984375 400.35821533203125 391.31707763671875 383.443328857421875 385.099090576171875 394.653900146484375 400.843719482421875 409.336212158203125 413.1881103515625 410.323974609375 393.297698974609375 374.04583740234375 364.855194091796875 353.3848876953125 343.7403564453125 344.22149658203125 347.86468505859375 353.257049560546875 358.862701416015625 364.836578369140625 367.906341552734375 368.925048828125 367.118682861328125 365.400848388671875 367.182525634765625 368.85955810546875 371.13134765625 373.857269287109375 376.721282958984375 376.94769287109375 374.94085693359375 377.4615478515625 384.46978759765625 391.4522705078125 398.234619140625 402.02276611328125 407.28521728515625 413.158111572265625 415.490203857421875 420.700286865234375 428.842132568359375 441.297332763671875 452.547088623046875 463.864410400390625 475.83538818359375 481.66650390625 488.256011962890625 502.166595458984375 514.74884033203125 526.55633544921875 536.1556396484375 546.74822998046875 556.04119873046875 553.35528564453125 557.19647216796875 570.593994140625 588.1282958984375 605.12664794921875 619.7489013671875 629.8914794921875 637.1173095703125 647.534912109375 657.29595947265625 663.04901123046875 665.4619140625 661.92755126953125 654.5225830078125 654.364501953125 659.68408203125 669.33929443359375 684.84429931640625 695.55908203125 705.5992431640625 721.1689453125 734.4122314453125 748.8568115234375 764.38836669921875 779.5244140625 790.7982177734375 798.5753173828125 807.45458984375 814.10577392578125 822.43170166015625 835.82080078125 849.6953125 861.8067626953125 873.81298828125 874.13616943359375 856.3006591796875 841.76092529296875 822.0697021484375 820.2694091796875 814.61614990234375 801.62786865234375 788.7264404296875 777.03070068359375 775.14996337890625 774.08544921875 772.15313720703125 776.173095703125 790.54608154296875 800.4398193359375
178.6768951416015625 174.9936676025390625 175.6430816650390625 173.7491302490234375 172.9970703125 172.315093994140625 169.6729888916015625 171.9633941650390625 176.1782073974609375 183.4669952392578125 190.798248291015625 193.8909149169921875 193.914520263671875 189.619354248046875 182.289764404296875 178.12176513671875 178.7545928955078125 187.1333160400390625 196.351043701171875 204.1038665771484375 213.2690277099609375 219.489593505859375 221.2339019775390625 224.5354766845703125 228.6938323974609375 237.38067626953125 249.958160400390625 260.444427490234375 270.217376708984375 278.800323486328125 291.96337890625 306.970367431640625 319.369964599609375 333.44720458984375 345.23089599609375 355.69952392578125 367.17547607421875 385.248291015625 400.9771728515625 408.511199951171875 415.679412841796875 425.4537353515625 441.7110595703125 460.667236328125 472.250274658203125 472.14361572265625 467.725738525390625 466.005279541015625 471.624114990234375 478.126983642578125 486.096466064453125 487.71405029296875 479.71832275390625 459.80218505859375 451.392059326171875 446.186309814453125 438.3863525390625 431.88922119140625 420.629119873046875 406.02569580078125 391.85150146484375 381.131103515625 372.426116943359375 371.394866943359375 380.46527099609375 387.38165283203125 398.611968994140625 403.743621826171875 406.834075927734375 394.053924560546875 372.18878173828125 362.38104248046875 353.575531005859375 339.506927490234375 338.83428955078125 343.234283447265625 347.5457763671875 353.07720947265625 359.235992431640625 362.3270263671875 361.4866943359375 361.783966064453125 362.770843505859375 363.9842529296875 365.1768798828125 367.5443115234375 369.521484375 369.6268310546875 369.604888916015625 371.971832275390625 379.002960205078125 384.361480712890625 391.09710693359375 399.3988037109375 403.42706298828125 408.34521484375 409.57061767578125 414.11749267578125 423.801849365234375 436.2508544921875 447.237884521484375 454.7147216796875 459.015472412109375 465.053497314453125 470.727386474609375 479.592193603515625 495.05889892578125 513.45208740234375 530.3758544921875 542.27130126953125 557.06231689453125 569.31378173828125 571.05169677734375 582.14227294921875 593.48675537109375 608.0367431640625 616.338134765625 622.95220947265625 624.837646484375 624.5738525390625 632.32391357421875 642.159423828125 644.98480224609375 639.94677734375 637.2471923828125 637.117919921875 646.56585693359375 661.3216552734375 678.71563720703125 692.5460205078125 703.0579833984375 713.41552734375 728.9185791015625 742.11285400390625 756.50732421875 765.63885498046875 776.69134521484375 787.1954345703125 793.5732421875 798.43548583984375 807.88812255859375 820.525634765625 838.91796875 854.41949462890625 866.5521240234375 862.5732421875 852.86651611328125 842.8203125 822.13385009765625 803.63751220703125 795.33984375 788.42724609375 777.88739013671875 760.2283935546875 752.63336181640625 753.9986572265625 753.81640625 754.42486572265625 762.24371337890625 775.25830078125 789.315185546875
183.2234039306640625 179.3148345947265625 176.8119659423828125 173.50885009765625 170.990020751953125 168.350921630859375 165.5361328125 168.538055419921875 173.1912384033203125 178.0601806640625 184.6979522705078125 190.3809661865234375 190.7882232666015625 186.996612548828125 179.425018310546875 176.8016815185546875 180.6188812255859375 184.5565948486328125 187.6581268310546875 196.4947967529296875 209.230255126953125 215.09564208984375 216.79705810546875 221.5212554931640625 227.7337188720703125 232.3158111572265625 238.49432373046875 246.2982940673828125 257.524627685546875 271.173492431640625 286.394134521484375 302.8922119140625 317.215728759765625 329.161651611328125 346.231964111328125 362.782470703125 379.899627685546875 398.971221923828125 414.6839599609375 428.574066162109375 438.876220703125 451.603302001953125 464.800872802734375 476.53076171875 484.3623046875 484.647247314453125 480.776092529296875 480.05926513671875 482.585662841796875 486.98077392578125 489.921905517578125 486.37359619140625 475.8548583984375 456.6673583984375 439.816802978515625 431.46240234375 424.4510498046875 418.363739013671875 410.1162109375 397.8040771484375 385.22021484375 372.220001220703125 362.10137939453125 356.73956298828125 361.739044189453125 370.35565185546875 383.914886474609375 395.63714599609375 396.96795654296875 388.101470947265625 372.3197021484375 360.780609130859375 348.116241455078125 335.249908447265625 333.79168701171875 337.536041259765625 343.35540771484375 350.6607666015625 356.817626953125 358.372894287109375 357.751922607421875 357.732086181640625 358.03759765625 359.448883056640625 360.1871337890625 361.77947998046875 364.005950927734375 367.8250732421875 369.29241943359375 372.562469482421875 374.66717529296875 379.545166015625 388.0916748046875 397.301910400390625 402.341400146484375 404.838897705078125 409.617462158203125 416.1763916015625 422.4603271484375 435.597198486328125 444.19268798828125 449.084503173828125 450.87774658203125 456.066986083984375 462.140625 471.602752685546875 488.1483154296875 510.131561279296875 530.69415283203125 545.61920166015625 560.6158447265625 575.67706298828125 585.2674560546875 595.81915283203125 601.95770263671875 606.46124267578125 610.57000732421875 612.2257080078125 617.116943359375 622.419189453125 624.19097900390625 622.77484130859375 624.72418212890625 628.6337890625 631.72796630859375 638.526611328125 653.90191650390625 673.5625 685.0433349609375 695.3795166015625 704.46490478515625 710.08349609375 718.1571044921875 729.24884033203125 743.1964111328125 753.4339599609375 761.26837158203125 773.5037841796875 787.13958740234375 793.81707763671875 804.41229248046875 824.11773681640625 840.51080322265625 849.05511474609375 849.69842529296875 841.72296142578125 831.3663330078125 818.931640625 800.12255859375 781.4271240234375 764.09136962890625 755.44891357421875 753.21746826171875 741.736083984375 733.255615234375 731.23162841796875 734.1888427734375 742.51678466796875 755.3690185546875 767.91192626953125 780.193115234375
182.751007080078125 176.9085540771484375 175.4058074951171875 171.7512969970703125 171.225067138671875 168.173858642578125 165.202789306640625 165.61590576171875 170.5376129150390625 176.7290496826171875 180.620147705078125 183.71661376953125 183.925048828125 183.1867218017578125 178.212127685546875 174.6551055908203125 177.7822418212890625 182.0882568359375 185.7672119140625 193.8505706787109375 203.2779998779296875 210.998382568359375 217.51507568359375 223.879669189453125 233.5575714111328125 240.4541473388671875 248.8477325439453125 254.657135009765625 260.998870849609375 270.75665283203125 285.45318603515625 299.4158935546875 315.306182861328125 330.162689208984375 344.16876220703125 361.623687744140625 386.37786865234375 408.216217041015625 426.099273681640625 438.8653564453125 449.86968994140625 460.26220703125 468.42559814453125 479.22125244140625 487.81561279296875 492.52496337890625 494.254180908203125 494.370391845703125 493.017181396484375 492.013885498046875 488.000640869140625 478.93377685546875 466.199066162109375 452.2833251953125 436.57904052734375 422.024322509765625 411.5416259765625 403.26513671875 397.91754150390625 386.59405517578125 375.520721435546875 363.309234619140625 349.952117919921875 343.146942138671875 344.554595947265625 353.374542236328125 364.68426513671875 377.58868408203125 382.5130615234375 379.854278564453125 366.557525634765625 354.800445556640625 342.718780517578125 331.92669677734375 326.898223876953125 331.43243408203125 337.620147705078125 347.3409423828125 351.782623291015625 351.868743896484375 351.465118408203125 352.987060546875 354.16314697265625 355.673553466796875 356.7205810546875 355.790802001953125 356.228240966796875 362.371337890625 367.383697509765625 372.062744140625 374.211578369140625 379.421234130859375 386.150115966796875 393.57720947265625 401.576629638671875 407.062530517578125 411.152862548828125 417.70611572265625 422.5029296875 428.731231689453125 436.7587890625 442.399993896484375 444.5181884765625 449.423004150390625 462.745452880859375 476.07391357421875 489.269866943359375 508.414825439453125 527.02899169921875 544.01318359375 558.50506591796875 578.96832275390625 589.0611572265625 594.86407470703125 596.38104248046875 591.27069091796875 589.46026611328125 586.25823974609375 595.66485595703125 610.04296875 619.46087646484375 622.97601318359375 619.9393310546875 619.44903564453125 625.93231201171875 637.64642333984375 650.308837890625 665.130859375 676.27911376953125 684.08502197265625 688.00018310546875 690.83526611328125 696.63824462890625 705.3182373046875 719.7940673828125 737.47381591796875 755.27740478515625 773.3773193359375 791.303466796875 803.01104736328125 816.48504638671875 833.67327880859375 844.30975341796875 846.20001220703125 838.04327392578125 823.4383544921875 806.34552001953125 795.06085205078125 775.7763671875 756.02923583984375 736.1905517578125 726.28997802734375 729.94024658203125 727.24737548828125 719.8177490234375 716.0267333984375 719.26385498046875 733.95489501953125 748.38641357421875 756.96600341796875 770.71685791015625
179.271270751953125 175.839874267578125 172.524017333984375 171.3632659912109375 168.8262176513671875 166.2484893798828125 161.7875823974609375 161.8773193359375 165.8506622314453125 170.6755218505859375 174.9365234375 176.341522216796875 177.7674560546875 177.1977081298828125 175.7073516845703125 170.1183929443359375 173.84393310546875 177.819305419921875 183.149505615234375 188.847747802734375 200.2385101318359375 210.9621124267578125 219.322784423828125 231.4566497802734375 238.2237701416015625 244.49322509765625 255.2273406982421875 265.28216552734375 272.194427490234375 276.725128173828125 285.158721923828125 300.702789306640625 313.949188232421875 325.7379150390625 336.395111083984375 360.650390625 384.80816650390625 408.733154296875 425.455413818359375 438.23651123046875 448.09747314453125 456.09228515625 462.178985595703125 470.379730224609375 480.670745849609375 489.69879150390625 496.07269287109375 498.05755615234375 497.239990234375 494.14862060546875 483.81378173828125 469.955657958984375 453.097900390625 440.3017578125 427.1865234375 415.124053955078125 401.923309326171875 392.37811279296875 382.899261474609375 371.636016845703125 360.95477294921875 354.887542724609375 340.994110107421875 330.537109375 329.79400634765625 339.745330810546875 353.364227294921875 365.276824951171875 371.356475830078125 370.780120849609375 359.771728515625 347.967437744140625 338.907806396484375 328.03021240234375 322.4564208984375 328.551544189453125 336.283721923828125 342.92242431640625 346.307708740234375 346.37530517578125 348.353973388671875 349.861724853515625 350.904266357421875 351.268829345703125 351.640869140625 351.42791748046875 355.139068603515625 360.884307861328125 367.7923583984375 371.02777099609375 373.92218017578125 379.40869140625 388.938751220703125 394.942230224609375 400.65814208984375 407.78125 414.3114013671875 419.08953857421875 424.916656494140625 429.741790771484375 435.3411865234375 438.87310791015625 442.994293212890625 451.297821044921875 466.514190673828125 478.641326904296875 488.669189453125 498.7952880859375 513.743896484375 533.4027099609375 549.67449951171875 567.30029296875 579.544677734375 585.33636474609375 581.45135498046875 570.99884033203125 566.07501220703125 571.991455078125 590.259521484375 601.8511962890625 610.28338623046875 614.77142333984375 614.255615234375 606.94586181640625 615.32611083984375 629.69366455078125 644.87506103515625 653.19342041015625 658.1949462890625 662.0928955078125 663.27301025390625 668.27618408203125 680.397216796875 694.418212890625 716.2479248046875 739.83245849609375 755.523681640625 773.1513671875 796.15924072265625 811.3687744140625 824.972412109375 838.5863037109375 848.51910400390625 841.25970458984375 830.18975830078125 806.938720703125 784.07562255859375 766.55865478515625 747.8126220703125 732.319091796875 717.74542236328125 713.62078857421875 713.0645751953125 710.333740234375 702.1041259765625 703.00164794921875 715.50384521484375 730.902099609375 740.44256591796875 751.7196044921875 766.43072509765625
177.115570068359375 171.71356201171875 168.655029296875 166.3597564697265625 164.526580810546875 164.419158935546875 163.2244110107421875 161.969573974609375 162.0219879150390625 164.721832275390625 168.5303497314453125 170.310455322265625 173.143829345703125 173.3022918701171875 171.6505584716796875 169.980804443359375 174.2972564697265625 178.039703369140625 183.9833831787109375 186.3384246826171875 194.700897216796875 207.3189697265625 219.690643310546875 231.0802459716796875 240.9450225830078125 250.2305145263671875 260.910888671875 265.82574462890625 271.147216796875 279.93768310546875 289.003448486328125 299.428741455078125 310.3587646484375 321.806396484375 337.037628173828125 360.819976806640625 388.760711669921875 403.7376708984375 417.7850341796875 431.243560791015625 439.998046875 446.002227783203125 451.60101318359375 459.388519287109375 468.252716064453125 480.302703857421875 493.241455078125 497.49285888671875 494.14093017578125 486.497772216796875 478.231658935546875 462.71807861328125 441.84619140625 429.943389892578125 416.48968505859375 406.117095947265625 395.000274658203125 380.408050537109375 362.087432861328125 351.26251220703125 348.758148193359375 344.31329345703125 332.644073486328125 317.09039306640625 317.066680908203125 329.18182373046875 341.3927001953125 355.142242431640625 362.057525634765625 359.7952880859375 349.68267822265625 339.886871337890625 330.70037841796875 322.52777099609375 319.62066650390625 326.815887451171875 332.786376953125 336.708160400390625 337.93035888671875 339.113250732421875 342.271270751953125 345.548553466796875 345.68304443359375 343.842376708984375 347.8162841796875 351.13409423828125 355.255950927734375 359.117919921875 364.954376220703125 367.99591064453125 372.866424560546875 379.046722412109375 389.793731689453125 397.402313232421875 403.038055419921875 408.22320556640625 413.865478515625 421.46026611328125 427.8096923828125 433.910369873046875 436.6220703125 439.351318359375 444.72613525390625 453.458465576171875 464.302032470703125 475.373138427734375 482.7535400390625 490.18768310546875 505.350311279296875 536.40374755859375 551.28729248046875 561.17767333984375 569.59942626953125 571.8348388671875 567.1580810546875 558.9774169921875 548.7420654296875 551.382568359375 570.8104248046875 586.94390869140625 602.718994140625 604.77874755859375 605.4271240234375 602.13812255859375 602.38702392578125 612.04559326171875 621.3641357421875 629.0313720703125 634.0950927734375 638.97747802734375 648.24359130859375 664.77557373046875 686.3392333984375 705.97650146484375 725.31060791015625 741.4385986328125 763.71148681640625 781.23895263671875 798.8140869140625 818.12396240234375 834.867919921875 840.22314453125 832.59033203125 819.1300048828125 807.9232177734375 787.43560791015625 762.13153076171875 742.08935546875 732.12158203125 722.68310546875 708.3712158203125 699.0408935546875 695.8016357421875 691.297607421875 690.00152587890625 690.963134765625 702.32440185546875 717.53607177734375 730.36639404296875 742.8818359375 754.31854248046875
177.71746826171875 172.4995269775390625 170.5932769775390625 168.375885009765625 166.3577880859375 162.6643524169921875 160.099517822265625 159.6787567138671875 159.233123779296875 160.4572906494140625 163.96844482421875 163.8196868896484375 167.84637451171875 168.1372833251953125 166.534423828125 168.458831787109375 175.3872528076171875 179.8634796142578125 180.5988922119140625 181.5670013427734375 187.130218505859375 200.528594970703125 214.326568603515625 228.985565185546875 241.113861083984375 252.461944580078125 263.42694091796875 270.498504638671875 276.22784423828125 285.093475341796875 294.5797119140625 303.15679931640625 314.259765625 325.99066162109375 339.173797607421875 359.68438720703125 384.8714599609375 397.6602783203125 407.55413818359375 419.849639892578125 428.56640625 433.429901123046875 438.736053466796875 449.00390625 459.71527099609375 472.855560302734375 485.61749267578125 492.431396484375 482.19140625 467.068817138671875 461.15350341796875 449.919677734375 430.170166015625 417.300933837890625 405.53387451171875 395.848846435546875 384.7490234375 372.55560302734375 355.529205322265625 339.300384521484375 332.65301513671875 328.701446533203125 320.146484375 307.40594482421875 307.87347412109375 321.49273681640625 334.482666015625 347.690460205078125 354.2520751953125 350.95068359375 339.968292236328125 327.790435791015625 318.6463623046875 316.2799072265625 315.662078857421875 322.6273193359375 329.86981201171875 331.999969482421875 333.294677734375 334.7965087890625 337.0130615234375 339.309112548828125 340.249603271484375 341.94476318359375 346.450592041015625 348.839324951171875 351.970428466796875 356.775299072265625 359.140960693359375 362.15325927734375 373.62591552734375 386.4423828125 395.182220458984375 399.14251708984375 403.72540283203125 408.384063720703125 409.787017822265625 413.75701904296875 420.98248291015625 426.922515869140625 431.0927734375 434.909759521484375 439.234344482421875 445.874114990234375 454.716400146484375 464.4580078125 473.541351318359375 482.756195068359375 503.478363037109375 531.64727783203125 545.15081787109375 551.00762939453125 554.3447265625 556.1556396484375 550.9180908203125 540.681640625 534.5830078125 546.0733642578125 561.52325439453125 574.07940673828125 584.44537353515625 586.23223876953125 580.619384765625 577.2738037109375 581.30242919921875 586.69915771484375 595.7113037109375 605.454345703125 617.21759033203125 633.90875244140625 652.92877197265625 677.33917236328125 692.39813232421875 712.9976806640625 728.7647705078125 743.423095703125 755.629150390625 777.04534912109375 806.48919677734375 822.2720947265625 831.4649658203125 830.33258056640625 821.52764892578125 806.6585693359375 791.91796875 767.045654296875 742.29193115234375 727.98687744140625 718.2664794921875 708.840576171875 692.93096923828125 682.5418701171875 675.06060791015625 664.7825927734375 668.5579833984375 676.82916259765625 690.0318603515625 703.4329833984375 720.96759033203125 734.484619140625 744.6605224609375
183.1412353515625 176.0183258056640625 171.50982666015625 167.8045501708984375 165.41278076171875 162.56829833984375 156.030303955078125 156.520599365234375 157.7812042236328125 158.0991668701171875 162.0920257568359375 162.6038665771484375 165.6253204345703125 167.1050567626953125 164.99163818359375 162.8637542724609375 169.4356536865234375 169.5651397705078125 171.3061676025390625 168.21759033203125 175.6488037109375 192.642730712890625 208.7003936767578125 222.3691253662109375 238.7977447509765625 251.231109619140625 260.140960693359375 269.12054443359375 277.696502685546875 287.940704345703125 299.541900634765625 310.53271484375 318.83795166015625 328.86712646484375 341.984375 358.51513671875 374.34307861328125 387.522491455078125 399.08837890625 405.1650390625 411.3394775390625 418.03753662109375 427.576904296875 438.144866943359375 448.973480224609375 462.745635986328125 476.076324462890625 480.993499755859375 472.567108154296875 458.388916015625 448.806549072265625 434.91851806640625 418.421630859375 406.20074462890625 392.687652587890625 383.9774169921875 374.45758056640625 363.67437744140625 351.935638427734375 334.70306396484375 321.930938720703125 316.72509765625 310.878448486328125 301.497650146484375 301.984619140625 315.690826416015625 327.865478515625 338.779510498046875 344.62103271484375 340.9439697265625 328.627349853515625 315.31494140625 307.883941650390625 308.07464599609375 311.225799560546875 317.92828369140625 320.340576171875 321.67724609375 323.925445556640625 324.164825439453125 328.870819091796875 335.652496337890625 340.04547119140625 343.56500244140625 344.2552490234375 344.3238525390625 347.253143310546875 350.37884521484375 353.291748046875 359.084686279296875 372.819366455078125 385.10589599609375 392.805877685546875 397.917633056640625 402.74407958984375 404.002471923828125 403.94366455078125 406.7275390625 412.045806884765625 419.078460693359375 427.43389892578125 435.28924560546875 439.565032958984375 448.160675048828125 457.423095703125 467.847747802734375 476.0230712890625 485.782501220703125 500.433685302734375 517.25408935546875 527.5325927734375 530.5740966796875 531.52178955078125 533.58197021484375 533.742919921875 527.88232421875 524.62554931640625 527.612548828125 536.5511474609375 551.59942626953125 558.47003173828125 562.71221923828125 561.44744873046875 557.22869873046875 561.30609130859375 565.50506591796875 574.98260498046875 591.74859619140625 618.48309326171875 638.10089111328125 654.7784423828125 672.1348876953125 689.7523193359375 708.1947021484375 719.23431396484375 726.274169921875 740.6788330078125 763.9237060546875 792.78424072265625 808.29974365234375 812.774658203125 809.53753662109375 802.93109130859375 792.54229736328125 774.67449951171875 751.37261962890625 733.9322509765625 722.01544189453125 707.42938232421875 695.58331298828125 680.99322509765625 665.50537109375 650.82940673828125 644.51959228515625 647.0811767578125 659.9652099609375 678.07489013671875 693.54888916015625 717.74371337890625 728.9122314453125 734.0015869140625
188.7508392333984375 179.3328399658203125 172.62969970703125 167.3081512451171875 159.7883453369140625 155.85113525390625 151.88592529296875 150.393157958984375 150.4887237548828125 154.2869720458984375 159.224090576171875 163.76019287109375 164.502685546875 166.3564605712890625 165.420745849609375 158.46826171875 156.1836395263671875 161.23980712890625 164.2018585205078125 165.36639404296875 177.192047119140625 190.996307373046875 200.358367919921875 213.2588043212890625 228.494293212890625 241.0750885009765625 249.401702880859375 260.858245849609375 271.81890869140625 285.755035400390625 301.709747314453125 316.41925048828125 323.440582275390625 333.863677978515625 343.85430908203125 354.496063232421875 366.749755859375 376.228271484375 382.072479248046875 389.602447509765625 395.28509521484375 405.06365966796875 418.2032470703125 428.902557373046875 438.4217529296875 451.15643310546875 460.377716064453125 464.298614501953125 462.7349853515625 451.24822998046875 434.1483154296875 417.699371337890625 404.365081787109375 394.46209716796875 380.204864501953125 371.8038330078125 365.13836669921875 357.3814697265625 345.229217529296875 328.22418212890625 315.40771484375 307.225311279296875 299.69854736328125 293.7137451171875 298.66131591796875 310.64508056640625 321.2655029296875 330.84185791015625 333.43450927734375 331.4300537109375 319.80596923828125 309.60662841796875 306.6722412109375 306.87432861328125 308.719451904296875 311.21795654296875 312.975189208984375 315.78594970703125 320.655303955078125 326.59393310546875 334.2694091796875 336.077117919921875 336.31585693359375 337.1978759765625 341.9437255859375 344.52178955078125 345.9803466796875 346.319488525390625 349.990814208984375 356.994110107421875 367.198486328125 377.654876708984375 385.661956787109375 389.020263671875 392.072601318359375 394.542327880859375 397.055450439453125 403.83648681640625 411.948944091796875 417.2830810546875 428.8387451171875 438.437530517578125 447.181182861328125 454.17364501953125 459.97845458984375 467.55816650390625 477.32513427734375 484.103851318359375 494.447998046875 503.256011962890625 511.490753173828125 512.9503173828125 513.6949462890625 517.45538330078125 517.50494384765625 515.88433837890625 512.606201171875 510.656585693359375 513.505859375 529.34332275390625 538.6224365234375 541.52374267578125 540.1961669921875 544.46173095703125 555.5389404296875 571.0496826171875 582.034423828125 599.3150634765625 614.9036865234375 626.849609375 634.820556640625 644.82476806640625 660.26654052734375 676.911376953125 689.0057373046875 698.286865234375 718.81494140625 746.48919677734375 778.1331787109375 790.8682861328125 788.1546630859375 782.58111572265625 772.486328125 759.90155029296875 747.204345703125 734.9873046875 727.7110595703125 716.30194091796875 703.724609375 685.09722900390625 669.2684326171875 650.17620849609375 638.3310546875 634.5789794921875 640.21905517578125 650.87664794921875 669.89703369140625 691.69873046875 702.00506591796875 706.1976318359375 707.23828125
